ply
    format ascii 1.0
    element vertex 82608
    property float x
    property float y
    property float z
    property uchar red
    property uchar green
    property uchar blue
    end_header
-0.949719 0.807443 -6.087975 16 22 14 
-0.941282 0.807443 -6.087975 24 30 20 
-0.932844 0.807443 -6.087975 31 39 26 
-0.924407 0.807443 -6.087975 34 42 29 
-0.915969 0.807443 -6.087975 36 45 31 
-0.921937 0.820260 -6.184609 34 42 29 
-0.913366 0.820260 -6.184609 29 36 24 
-0.904794 0.820260 -6.184609 26 34 22 
-0.896223 0.820260 -6.184609 28 35 23 
-0.887651 0.820260 -6.184609 30 38 25 
-0.865344 0.807443 -6.087975 32 40 27 
-0.856907 0.807443 -6.087975 32 41 29 
-0.848469 0.807443 -6.087975 32 40 28 
-0.840032 0.807443 -6.087975 31 38 27 
-0.831594 0.807443 -6.087975 28 35 26 
-0.823157 0.807443 -6.087975 27 33 24 
-0.814719 0.807443 -6.087975 25 32 24 
-0.806282 0.807443 -6.087975 24 31 23 
-0.810508 0.820260 -6.184609 24 31 23 
-0.801937 0.820260 -6.184609 24 31 24 
-0.793366 0.820260 -6.184609 24 31 24 
-0.772532 0.807443 -6.087975 24 31 24 
-0.764094 0.807443 -6.087975 25 31 24 
-0.088995 0.124222 -0.936611 13 18 16 
-0.087487 0.123924 -0.934365 14 19 17 
-0.085373 0.122747 -0.925488 15 20 18 
-0.083891 0.122456 -0.923295 16 21 19 
-0.082416 0.122166 -0.921112 17 23 21 
-0.081140 0.122166 -0.921112 17 23 21 
-0.079675 0.121878 -0.918940 17 23 22 
-0.078033 0.121306 -0.914625 23 30 30 
-0.076586 0.121022 -0.912483 32 41 40 
-0.074970 0.120458 -0.908229 42 54 54 
-0.073369 0.119899 -0.904015 57 72 73 
-0.072116 0.119899 -0.904015 76 94 97 
-0.070699 0.119621 -0.901922 93 114 117 
-0.069449 0.119621 -0.901922 110 133 137 
-0.068199 0.119621 -0.901922 127 155 162 
-0.066949 0.119621 -0.901922 150 175 184 
-0.065699 0.119621 -0.901922 165 194 207 
-0.064449 0.119621 -0.901922 179 210 223 
-0.063199 0.119621 -0.901922 187 219 233 
-0.061949 0.119621 -0.901922 191 218 233 
-0.060699 0.119621 -0.901922 187 213 228 
-0.059449 0.119621 -0.901922 170 195 209 
-0.058199 0.119621 -0.901922 150 172 185 
-0.056949 0.119621 -0.901922 129 145 158 
-0.055699 0.119621 -0.901922 84 96 106 
-0.054449 0.119621 -0.901922 41 48 53 
-0.053199 0.119621 -0.901922 25 30 33 
-0.051949 0.119621 -0.901922 22 26 28 
-0.050582 0.119345 -0.899839 20 24 26 
-0.049221 0.119070 -0.897766 17 20 21 
-0.047867 0.118796 -0.895702 14 18 18 
-0.046412 0.118253 -0.891603 13 17 17 
-0.045176 0.118253 -0.891603 14 17 17 
-0.057699 0.180687 -1.362344 15 18 16 
-0.055617 0.180057 -1.357597 15 19 15 
-0.053735 0.180057 -1.357597 15 19 16 
-0.050448 0.175174 -1.320781 16 20 17 
-0.047967 0.172831 -1.303112 17 21 17 
-0.032399 0.121306 -0.914625 19 24 19 
-0.031132 0.121306 -0.914625 20 25 20 
-0.029864 0.121306 -0.914625 20 24 20 
-0.028867 0.122456 -0.923295 19 23 18 
-0.038423 0.170549 -1.285909 18 22 17 
-0.036762 0.171114 -1.290167 18 22 17 
-0.034974 0.171114 -1.290167 18 22 17 
-0.033076 0.170549 -1.285909 18 23 17 
-0.031294 0.170549 -1.285909 18 23 17 
-0.029512 0.170549 -1.285909 16 21 16 
-0.027729 0.170549 -1.285909 14 19 14 
-0.025947 0.170549 -1.285909 12 16 13 
-0.024165 0.170549 -1.285909 12 16 12 
-0.022309 0.169988 -1.281679 12 15 12 
-0.020533 0.169988 -1.281679 12 16 12 
-0.018757 0.169988 -1.281679 14 18 14 
-0.016980 0.169988 -1.281679 20 26 21 
-0.015204 0.169988 -1.281679 38 47 39 
-0.013428 0.169988 -1.281679 75 86 77 
-0.011651 0.169988 -1.281679 120 136 126 
-0.009908 0.170549 -1.285909 162 181 176 
-0.008126 0.170549 -1.285909 160 173 177 
-0.006343 0.170549 -1.285909 94 97 104 
-0.004546 0.169988 -1.281679 43 45 49 
-0.002770 0.169988 -1.281679 31 33 34 
-0.000994 0.169988 -1.281679 23 27 26 
0.000783 0.169988 -1.281679 16 20 17 
0.002559 0.169988 -1.281679 15 18 16 
0.004335 0.169988 -1.281679 14 17 14 
0.006092 0.169431 -1.277477 14 17 14 
0.007837 0.168877 -1.273302 14 17 14 
0.009570 0.168327 -1.269154 14 17 14 
0.011329 0.168327 -1.269154 15 18 14 
0.013088 0.168327 -1.269154 14 18 14 
0.014847 0.168327 -1.269154 14 18 14 
0.016606 0.168327 -1.269154 14 18 14 
0.018425 0.168877 -1.273302 14 18 14 
-3.521379 0.691032 -5.265275 185 221 244 
-3.377169 0.664109 -5.060135 189 224 242 
-3.326949 0.655595 -4.995261 189 224 242 
-3.320026 0.655595 -4.995261 189 224 242 
-3.271165 0.647296 -4.932030 189 221 235 
-3.264330 0.647296 -4.932030 189 221 235 
-3.216775 0.639205 -4.870379 193 226 240 
-3.210026 0.639205 -4.870379 211 245 254 
-3.203275 0.639205 -4.870379 216 248 254 
-3.196525 0.639205 -4.870379 159 185 194 
-3.189775 0.639205 -4.870379 82 101 109 
-3.183025 0.639205 -4.870379 67 83 91 
-3.176275 0.639205 -4.870379 91 111 120 
-3.169525 0.639205 -4.870379 152 182 197 
-3.162776 0.639205 -4.870379 163 194 211 
-3.156025 0.639205 -4.870379 177 210 227 
-3.149276 0.639205 -4.870379 191 226 244 
-3.142525 0.639205 -4.870379 187 227 244 
-3.135776 0.639205 -4.870379 185 227 249 
-3.129025 0.639205 -4.870379 185 227 249 
-3.122275 0.639205 -4.870379 185 227 249 
-3.115525 0.639205 -4.870379 185 227 249 
-3.148127 0.647296 -4.932030 185 227 249 
-3.141292 0.647296 -4.932030 185 227 249 
-3.134456 0.647296 -4.932030 187 230 251 
-3.127621 0.647296 -4.932030 187 230 251 
-3.120785 0.647296 -4.932030 187 230 251 
-3.153872 0.655595 -4.995261 187 230 251 
-3.146949 0.655595 -4.995261 187 230 251 
-3.140026 0.655595 -4.995261 187 230 251 
-3.133103 0.655595 -4.995261 187 230 251 
-3.126180 0.655595 -4.995261 187 230 251 
-3.077718 0.655595 -4.995261 191 232 249 
-3.070795 0.655595 -4.995261 191 232 249 
-3.063872 0.655595 -4.995261 191 232 249 
-3.018254 0.647296 -4.932030 191 232 249 
-3.011418 0.647296 -4.932030 191 232 249 
-2.967026 0.639205 -4.870379 196 231 249 
-2.960275 0.639205 -4.870379 196 231 249 
-2.953526 0.639205 -4.870379 191 226 244 
-2.946775 0.639205 -4.870379 211 245 254 
-2.940026 0.639205 -4.870379 157 186 198 
-2.933275 0.639205 -4.870379 58 76 82 
-2.926525 0.639205 -4.870379 42 54 60 
-2.919775 0.639205 -4.870379 113 138 151 
-2.913025 0.639205 -4.870379 171 203 220 
-2.906276 0.639205 -4.870379 148 177 193 
-2.899525 0.639205 -4.870379 165 202 218 
-2.892776 0.639205 -4.870379 183 223 239 
-2.922557 0.647296 -4.932030 185 225 242 
-2.915722 0.647296 -4.932030 189 230 247 
-2.908886 0.647296 -4.932030 189 230 247 
-2.902051 0.647296 -4.932030 189 230 247 
-2.859025 0.639205 -4.870379 187 230 251 
-2.852275 0.639205 -4.870379 187 230 251 
-2.845526 0.639205 -4.870379 187 230 251 
-2.838775 0.639205 -4.870379 189 232 254 
-2.832026 0.639205 -4.870379 189 232 254 
-2.825275 0.639205 -4.870379 189 232 254 
-2.818526 0.639205 -4.870379 189 232 254 
-2.847368 0.647296 -4.932030 191 232 249 
-2.840532 0.647296 -4.932030 191 232 249 
-2.907299 0.664109 -5.060135 191 232 249 
-4.238390 1.420455 -10.823066 39 43 31 
-4.109244 1.382064 -10.530551 38 42 31 
-3.986896 1.345694 -10.253430 37 41 30 
-3.972685 1.345694 -10.253430 39 43 31 
-3.856975 1.311189 -9.990522 41 45 33 
-3.747051 1.278410 -9.740759 40 45 33 
-3.555763 1.217533 -9.276914 37 41 30 
-3.460512 1.189218 -9.061172 37 41 30 
-3.447954 1.189218 -9.061172 30 33 24 
-3.282712 1.136364 -8.658453 21 24 16 
-3.199610 1.111660 -8.470225 18 20 13 
-3.187870 1.111660 -8.470225 19 21 14 
-3.108554 1.088008 -8.290008 19 22 15 
-3.032542 1.065341 -8.117299 19 22 15 
-2.959633 1.043600 -7.951640 22 25 18 
-2.889641 1.022728 -7.792607 28 31 23 
-2.617128 0.929752 -7.084188 33 37 26 
-2.390034 0.852273 -6.493839 35 39 28 
-2.342000 0.838301 -6.387383 35 40 30 
-2.295517 0.824780 -6.284361 35 40 30 
-2.250509 0.811689 -6.184609 36 41 31 
-2.206907 0.799006 -6.087975 39 43 34 
-2.198469 0.799006 -6.087975 56 60 49 
-2.190032 0.799006 -6.087975 119 127 110 
-2.181594 0.799006 -6.087975 130 140 125 
-2.173157 0.799006 -6.087975 116 125 111 
-2.199080 0.811689 -6.184609 183 197 182 
-2.262328 0.838301 -6.387383 204 220 203 
-2.253476 0.838301 -6.387383 164 178 164 
-2.320712 0.866718 -6.603905 164 178 164 
-2.435393 0.913150 -6.957685 195 211 195 
-2.469855 0.929752 -7.084188 147 158 142 
-2.505593 0.946970 -7.215377 49 56 48 
-2.495593 0.946970 -7.215377 37 43 36 
-2.581193 0.983392 -7.492892 37 43 35 
-2.570808 0.983392 -7.492892 37 43 35 
-2.610628 1.002674 -7.639811 37 43 35 
-2.652040 1.022728 -7.792607 39 46 37 
-2.641241 1.022728 -7.792607 41 46 36 
-2.684123 1.043600 -7.951640 41 46 36 
-2.673103 1.043600 -7.951640 39 45 35 
-2.717542 1.065341 -8.117299 37 42 33 
-2.706292 1.065341 -8.117299 37 42 33 
-2.695042 1.065341 -8.117299 40 45 36 
-2.740894 1.088008 -8.290008 45 52 42 
-0.590779 0.245848 -1.873223 75 84 77 
-0.588183 0.245848 -1.873223 100 113 107 
-0.582785 0.244672 -1.864260 140 155 148 
-0.580201 0.244672 -1.864260 67 77 72 
-0.580394 0.245848 -1.873223 50 58 54 
-1.397465 0.594609 -4.530586 58 66 60 
-1.407553 0.601605 -4.583887 47 54 49 
-1.417881 0.608766 -4.638457 44 50 46 
-3.976622 1.763324 -13.435530 45 53 47 
-3.375942 1.504011 -11.459717 45 53 48 
-2.929283 1.311189 -9.990522 45 53 48 
-2.584137 1.162191 -8.855236 45 53 48 
-2.460044 1.111660 -8.470225 47 56 51 
-2.448305 1.111660 -8.470225 53 64 60 
-2.335042 1.065341 -8.117299 121 140 132 
-2.276368 1.043600 -7.951640 152 176 170 
-2.220041 1.022728 -7.792607 160 186 184 
-2.165922 1.002674 -7.639811 162 188 186 
-2.113885 0.983392 -7.492892 127 149 147 
-2.103501 0.983392 -7.492892 102 122 120 
-2.053623 0.964837 -7.351516 78 93 89 
-2.043434 0.964837 -7.351516 67 81 78 
-1.995593 0.946970 -7.215377 53 64 60 
-1.949491 0.929752 -7.084188 39 47 42 
-1.939673 0.929752 -7.084188 34 41 35 
-1.862141 0.897130 -6.835620 31 38 31 
-1.820725 0.881662 -6.717765 28 35 27 
-1.811414 0.881662 -6.717765 26 32 25 
-1.771560 0.866718 -6.603905 26 31 23 
-1.762407 0.866718 -6.603905 25 31 23 
-1.753255 0.866718 -6.603905 25 30 22 
-1.744102 0.866718 -6.603905 23 28 21 
-1.764863 0.881662 -6.717765 22 26 18 
-1.786351 0.897130 -6.835620 20 25 17 
-1.776878 0.897130 -6.835620 20 24 17 
-1.767404 0.897130 -6.835620 21 25 18 
-1.757930 0.897130 -6.835620 23 27 19 
-1.689187 0.866718 -6.603905 25 31 22 
-1.624951 0.838301 -6.387383 29 34 25 
-1.616099 0.838301 -6.387383 33 39 29 
-0.680014 0.362669 -2.763336 47 52 42 
-0.676185 0.362669 -2.763336 47 53 44 
-0.667620 0.360115 -2.743876 48 53 44 
-0.659175 0.357597 -2.724688 47 51 42 
-0.650847 0.355114 -2.705766 46 50 41 
-0.647097 0.355114 -2.705766 49 55 47 
-0.638911 0.352665 -2.687106 51 57 49 
-0.630836 0.350249 -2.668701 58 62 56 
-0.627137 0.350249 -2.668701 69 75 69 
-0.623439 0.350249 -2.668701 64 70 64 
-0.619740 0.350249 -2.668701 51 56 52 
-0.616041 0.350249 -2.668701 46 51 46 
-0.612343 0.350249 -2.668701 41 45 41 
-0.608644 0.350249 -2.668701 42 46 40 
-0.604945 0.350249 -2.668701 40 46 40 
-0.601247 0.350249 -2.668701 40 45 39 
-0.593483 0.347867 -2.650547 40 45 39 
-0.589810 0.347867 -2.650547 40 45 39 
-0.594221 0.352665 -2.687106 39 44 39 
-0.590497 0.352665 -2.687106 40 45 39 
-0.586773 0.352665 -2.687106 40 45 38 
-0.587097 0.355114 -2.705766 39 46 38 
-2.625063 1.598012 -12.175949 37 44 37 
-2.608188 1.598012 -12.175949 37 43 36 
-2.512789 1.549587 -11.806981 36 42 35 
-2.423001 1.504011 -11.459717 35 42 35 
-2.338344 1.461040 -11.132297 35 41 34 
-2.322915 1.461040 -11.132297 35 41 34 
-2.307487 1.461040 -11.132297 35 41 34 
-2.228390 1.420455 -10.823066 34 40 33 
-2.213390 1.420455 -10.823066 33 38 32 
-2.198390 1.420455 -10.823066 32 38 31 
-2.456313 1.598012 -12.175949 30 37 31 
-2.439438 1.598012 -12.175949 29 37 30 
-2.349152 1.549587 -11.806981 31 36 30 
-2.199486 1.461040 -11.132297 31 36 30 
-2.011632 1.345694 -10.253430 31 36 30 
-1.897551 1.278410 -9.740759 30 36 29 
-1.794334 1.217533 -9.276914 29 35 30 
-1.740047 1.189218 -9.061172 28 34 29 
-1.650712 1.136364 -8.658453 27 33 28 
-1.603088 1.111660 -8.470225 27 33 28 
-1.525042 1.065341 -8.117299 28 34 29 
-1.482898 1.043600 -7.951640 26 32 27 
-1.386962 0.983392 -7.492892 24 30 25 
-1.234173 0.881662 -6.717765 22 28 24 
-1.204102 0.866718 -6.603905 23 29 25 
-1.175034 0.852273 -6.493839 27 34 30 
-1.166034 0.852273 -6.493839 30 36 32 
-1.157034 0.852273 -6.493839 28 34 30 
-1.148034 0.852273 -6.493839 23 29 25 
-1.139034 0.852273 -6.493839 21 26 23 
-1.130034 0.852273 -6.493839 23 28 24 
-1.102656 0.838301 -6.387383 24 29 25 
-1.093804 0.838301 -6.387383 23 28 24 
-1.084951 0.838301 -6.387383 24 30 24 
-1.058742 0.824780 -6.284361 25 31 24 
-1.033365 0.811689 -6.184609 25 31 24 
-1.024794 0.811689 -6.184609 24 31 23 
-1.000344 0.799006 -6.087975 27 33 24 
-0.991907 0.799006 -6.087975 29 36 26 
-0.983469 0.799006 -6.087975 26 33 23 
-0.975032 0.799006 -6.087975 21 27 18 
-0.966594 0.799006 -6.087975 17 22 14 
-0.958157 0.799006 -6.087975 16 21 13 
-0.949719 0.799006 -6.087975 16 22 14 
-0.941282 0.799006 -6.087975 22 29 18 
-0.932844 0.799006 -6.087975 29 36 24 
-0.939080 0.811689 -6.184609 34 42 29 
-0.930508 0.811689 -6.184609 36 45 31 
-0.921937 0.811689 -6.184609 35 43 30 
-0.928097 0.824780 -6.284361 30 38 25 
-0.919388 0.824780 -6.284361 28 36 24 
-0.910678 0.824780 -6.284361 31 39 28 
-0.901968 0.824780 -6.284361 33 42 29 
-0.879080 0.811689 -6.184609 34 43 31 
-0.870508 0.811689 -6.184609 35 42 30 
-0.861937 0.811689 -6.184609 33 40 28 
-0.853366 0.811689 -6.184609 30 37 27 
-0.844794 0.811689 -6.184609 26 33 25 
-0.836223 0.811689 -6.184609 24 31 23 
-0.841000 0.824780 -6.284361 23 30 22 
-0.845935 0.838301 -6.387383 23 30 23 
-0.837082 0.838301 -6.387383 22 30 23 
-0.828230 0.838301 -6.387383 23 29 23 
-0.806162 0.824780 -6.284361 23 29 22 
-0.784794 0.811689 -6.184609 22 28 22 
-0.801673 0.838301 -6.387383 23 29 22 
-0.089210 0.123220 -0.938868 10 14 13 
-0.087697 0.122924 -0.936611 11 15 13 
-0.086192 0.122629 -0.934365 12 16 14 
-0.084090 0.121464 -0.925488 13 18 16 
-0.082611 0.121176 -0.923295 15 20 19 
-0.081140 0.120890 -0.921112 16 22 20 
-0.079863 0.120890 -0.921112 17 23 22 
-0.078217 0.120321 -0.916777 23 30 30 
-0.076586 0.119757 -0.912483 32 41 40 
-0.074970 0.119199 -0.908229 41 53 53 
-0.073369 0.118646 -0.904015 57 72 73 
-0.072116 0.118646 -0.904015 74 93 96 
-0.070699 0.118371 -0.901922 92 113 116 
-0.069449 0.118371 -0.901922 110 133 137 
-0.068199 0.118371 -0.901922 125 153 160 
-0.066949 0.118371 -0.901922 148 173 182 
-0.065699 0.118371 -0.901922 163 192 205 
-0.064449 0.118371 -0.901922 179 210 223 
-0.063199 0.118371 -0.901922 185 216 230 
-0.061949 0.118371 -0.901922 191 218 233 
-0.060699 0.118371 -0.901922 187 213 228 
-0.059449 0.118371 -0.901922 168 193 207 
-0.058199 0.118371 -0.901922 150 172 185 
-0.056949 0.118371 -0.901922 127 143 156 
-0.055699 0.118371 -0.901922 83 95 105 
-0.054449 0.118371 -0.901922 40 47 53 
-0.053199 0.118371 -0.901922 24 29 32 
-0.051829 0.118098 -0.899839 21 26 29 
-0.050466 0.117826 -0.897766 21 25 27 
-0.049108 0.117555 -0.895702 18 21 22 
-0.047867 0.117555 -0.895702 16 20 21 
-0.046518 0.117285 -0.893648 16 19 19 
-0.045280 0.117285 -0.893648 16 20 20 
-0.054664 0.175125 -1.334351 14 17 15 
-0.051579 0.171025 -1.303112 14 18 15 
-0.049773 0.171025 -1.303112 15 19 15 
-0.047967 0.171025 -1.303112 16 20 16 
-0.045551 0.168767 -1.285909 17 22 18 
-0.031576 0.121753 -0.927691 19 23 19 
-0.030291 0.121753 -0.927691 19 24 19 
-0.040072 0.168212 -1.281679 19 23 19 
-0.038423 0.168767 -1.285909 18 22 18 
-0.036640 0.168767 -1.285909 17 21 17 
-0.034858 0.168767 -1.285909 16 20 16 
-0.033076 0.168767 -1.285909 17 20 15 
-0.031294 0.168767 -1.285909 16 20 15 
-0.029512 0.168767 -1.285909 15 19 14 
-0.027729 0.168767 -1.285909 14 18 13 
-0.025947 0.168767 -1.285909 12 16 13 
-0.024165 0.168767 -1.285909 12 16 12 
-0.022309 0.168212 -1.281679 12 15 12 
-0.020533 0.168212 -1.281679 12 16 12 
-0.018757 0.168212 -1.281679 14 19 15 
-0.016980 0.168212 -1.281679 22 28 22 
-0.015204 0.168212 -1.281679 44 53 44 
-0.013428 0.168212 -1.281679 83 98 87 
-0.011651 0.168212 -1.281679 134 152 141 
-0.009875 0.168212 -1.281679 171 191 186 
-0.008099 0.168212 -1.281679 154 167 171 
-0.006343 0.168767 -1.285909 78 82 90 
-0.004561 0.168767 -1.285909 31 32 35 
-0.002770 0.168212 -1.281679 18 20 21 
-0.000994 0.168212 -1.281679 13 15 15 
0.000783 0.168212 -1.281679 11 13 12 
0.002559 0.168212 -1.281679 13 16 14 
0.004335 0.168212 -1.281679 14 17 15 
0.006112 0.168212 -1.281679 14 17 14 
0.007837 0.167112 -1.273302 14 17 14 
0.009570 0.166568 -1.269154 14 17 14 
0.011329 0.166568 -1.269154 14 17 14 
0.013088 0.166568 -1.269154 14 17 13 
0.014799 0.166027 -1.265034 14 17 14 
0.016552 0.166027 -1.265034 14 17 13 
0.018365 0.166568 -1.269154 14 17 13 
-3.333872 0.648672 -4.995261 189 224 242 
-3.326949 0.648672 -4.995261 191 223 238 
-3.320026 0.648672 -4.995261 191 223 238 
-3.271165 0.640461 -4.932030 191 221 231 
-3.264330 0.640461 -4.932030 191 221 231 
-3.216775 0.632455 -4.870379 195 226 236 
-3.210026 0.632455 -4.870379 225 254 254 
-3.203275 0.632455 -4.870379 216 248 254 
-3.196525 0.632455 -4.870379 151 177 186 
-3.189775 0.632455 -4.870379 59 73 78 
-3.183025 0.632455 -4.870379 29 38 41 
-3.176275 0.632455 -4.870379 53 67 74 
-3.169525 0.632455 -4.870379 136 161 173 
-3.162776 0.632455 -4.870379 161 192 208 
-3.156025 0.632455 -4.870379 171 203 220 
-3.149276 0.632455 -4.870379 189 224 242 
-3.142525 0.632455 -4.870379 189 224 242 
-3.135776 0.632455 -4.870379 185 225 242 
-3.129025 0.632455 -4.870379 189 226 249 
-3.122275 0.632455 -4.870379 189 226 249 
-3.115525 0.632455 -4.870379 189 226 249 
-3.148127 0.640461 -4.932030 185 227 249 
-3.141292 0.640461 -4.932030 185 227 249 
-3.174641 0.648672 -4.995261 185 227 249 
-3.167718 0.648672 -4.995261 185 227 249 
-3.160795 0.648672 -4.995261 185 227 249 
-3.194832 0.657096 -5.060135 185 227 249 
-3.018254 0.640461 -4.932030 196 231 249 
-2.973775 0.632455 -4.870379 196 231 249 
-2.967026 0.632455 -4.870379 196 231 249 
-2.960275 0.632455 -4.870379 198 231 245 
-2.953526 0.632455 -4.870379 183 214 228 
-2.946775 0.632455 -4.870379 207 240 254 
-2.940026 0.632455 -4.870379 159 188 200 
-2.933275 0.632455 -4.870379 65 81 88 
-2.926525 0.632455 -4.870379 49 63 69 
-2.919775 0.632455 -4.870379 113 136 146 
-2.913025 0.632455 -4.870379 136 161 173 
-2.906276 0.632455 -4.870379 77 97 107 
-2.899525 0.632455 -4.870379 129 156 170 
-2.892776 0.632455 -4.870379 181 214 232 
-2.886025 0.632455 -4.870379 185 225 242 
-2.879276 0.632455 -4.870379 187 227 244 
-2.872525 0.632455 -4.870379 189 230 247 
-2.865775 0.632455 -4.870379 189 230 247 
-2.859025 0.632455 -4.870379 187 230 251 
-2.852275 0.632455 -4.870379 187 230 251 
-2.845526 0.632455 -4.870379 187 230 251 
-2.838775 0.632455 -4.870379 187 230 251 
-2.832026 0.632455 -4.870379 187 230 251 
-2.825275 0.632455 -4.870379 187 230 251 
-2.818526 0.632455 -4.870379 189 230 247 
-2.847368 0.640461 -4.932030 189 230 247 
-2.876949 0.648672 -4.995261 189 230 247 
-4.374915 1.445611 -11.132297 39 43 31 
-4.123839 1.367470 -10.530551 37 41 29 
-4.109244 1.367470 -10.530551 35 38 28 
-3.986896 1.331484 -10.253430 31 35 25 
-3.870821 1.297343 -9.990522 35 38 28 
-3.856975 1.297343 -9.990522 45 47 35 
-3.655659 1.234058 -9.503180 56 58 44 
-3.555763 1.204676 -9.276914 49 52 39 
-3.460512 1.176660 -9.061172 45 50 37 
-3.369592 1.149918 -8.855236 43 46 34 
-3.282712 1.124364 -8.658453 31 34 24 
-3.199610 1.099921 -8.470225 22 25 17 
-3.187870 1.099921 -8.470225 20 23 16 
-3.108554 1.076519 -8.290008 22 25 17 
-3.032542 1.054091 -8.117299 23 26 18 
-3.021292 1.054091 -8.117299 25 28 20 
-2.889641 1.011928 -7.792607 29 33 24 
-2.715888 0.954649 -7.351516 32 35 25 
-2.515825 0.887656 -6.835620 35 38 28 
-2.381034 0.843273 -6.493839 37 41 31 
-2.333148 0.829449 -6.387383 38 42 32 
-2.286807 0.816071 -6.284361 38 42 32 
-2.278097 0.816071 -6.284361 41 43 33 
-2.233366 0.803117 -6.184609 46 50 40 
-2.224794 0.803117 -6.184609 70 76 64 
-2.251968 0.816071 -6.284361 139 149 134 
-2.243259 0.816071 -6.284361 135 146 130 
-2.271181 0.829449 -6.387383 151 164 151 
-2.262328 0.829449 -6.387383 193 208 192 
-2.329865 0.857566 -6.603905 164 178 164 
-2.402141 0.887656 -6.835620 100 110 99 
-2.479673 0.919934 -7.084188 82 90 81 
-2.515593 0.936970 -7.215377 69 76 66 
-2.505593 0.936970 -7.215377 43 48 41 
-2.591578 0.973007 -7.492892 34 40 33 
-2.581193 0.973007 -7.492892 37 42 34 
-2.621216 0.992086 -7.639811 37 42 34 
-2.662841 1.011928 -7.792607 37 42 34 
-2.652040 1.011928 -7.792607 37 43 35 
-2.695143 1.032579 -7.951640 38 43 34 
-2.684123 1.032579 -7.951640 38 43 34 
-2.728792 1.054091 -8.117299 36 41 32 
-2.717542 1.054091 -8.117299 36 41 32 
-2.706292 1.054091 -8.117299 38 43 34 
-2.695042 1.054091 -8.117299 40 45 36 
-2.683792 1.054091 -8.117299 52 58 46 
-2.672542 1.054091 -8.117299 74 83 70 
-2.661292 1.054091 -8.117299 69 79 68 
-2.753522 1.099921 -8.470225 38 44 38 
-2.627542 1.054091 -8.117299 33 38 33 
-2.730044 1.099921 -8.470225 34 39 34 
-0.582785 0.242088 -1.864260 141 157 150 
-0.580201 0.242088 -1.864260 66 76 71 
-1.420259 0.595252 -4.583887 46 53 48 
-1.413906 0.595252 -4.583887 50 57 52 
-1.407553 0.595252 -4.583887 45 52 47 
-1.401200 0.595252 -4.583887 45 51 46 
-3.620688 1.581137 -12.175949 47 53 47 
-3.294915 1.445611 -11.132297 45 53 46 
-2.943129 1.297343 -9.990522 44 52 45 
-2.656791 1.176660 -9.061172 42 51 46 
-2.471783 1.099921 -8.470225 42 51 46 
-2.357542 1.054091 -8.117299 39 47 42 
-2.346292 1.054091 -8.117299 40 49 45 
-2.287388 1.032579 -7.951640 64 78 74 
-2.230840 1.011928 -7.792607 87 104 100 
-2.176510 0.992086 -7.639811 140 164 162 
-2.124270 0.973007 -7.492892 178 206 203 
-2.113885 0.973007 -7.492892 113 133 131 
-2.063812 0.954649 -7.351516 88 105 103 
-2.053623 0.954649 -7.351516 82 100 98 
-2.005593 0.936970 -7.215377 85 101 97 
-1.995593 0.936970 -7.215377 64 76 71 
-1.949491 0.919934 -7.084188 41 49 44 
-1.939673 0.919934 -7.084188 37 44 38 
-1.895393 0.903507 -6.957685 33 40 34 
-1.820725 0.872351 -6.717765 28 34 28 
-1.780712 0.857566 -6.603905 25 31 24 
-1.771560 0.857566 -6.603905 23 29 22 
-1.762407 0.857566 -6.603905 22 27 20 
-1.753255 0.857566 -6.603905 21 26 19 
-1.744102 0.857566 -6.603905 20 25 18 
-1.734950 0.857566 -6.603905 20 25 18 
-1.786351 0.887656 -6.835620 20 25 18 
-1.776878 0.887656 -6.835620 22 25 18 
-1.767404 0.887656 -6.835620 23 26 18 
-1.757930 0.887656 -6.835620 24 29 21 
-1.718311 0.872351 -6.717765 27 32 23 
-1.680034 0.857566 -6.603905 31 37 27 
-1.670882 0.857566 -6.603905 36 41 31 
-0.671423 0.356313 -2.743876 43 50 41 
-0.658347 0.351364 -2.705766 42 48 39 
-0.654597 0.351364 -2.705766 42 47 40 
-0.646359 0.348941 -2.687106 40 44 37 
-0.642635 0.348941 -2.687106 43 48 41 
-0.634534 0.346551 -2.668701 47 53 47 
-0.626544 0.344193 -2.650547 70 76 71 
-0.622871 0.344193 -2.650547 141 150 141 
-0.619197 0.344193 -2.650547 129 140 134 
-0.615524 0.344193 -2.650547 58 64 61 
-0.611851 0.344193 -2.650547 34 39 36 
-0.608177 0.344193 -2.650547 28 33 30 
-0.604504 0.344193 -2.650547 33 39 35 
-0.604945 0.346551 -2.668701 34 40 36 
-0.601247 0.346551 -2.668701 34 40 36 
-0.593483 0.344193 -2.650547 35 40 36 
-0.589810 0.344193 -2.650547 35 41 37 
-0.594221 0.348941 -2.687106 37 42 37 
-0.594597 0.351364 -2.705766 37 42 37 
-0.590847 0.351364 -2.705766 37 42 37 
-0.587097 0.351364 -2.705766 35 42 37 
-1.354871 0.816071 -6.284361 34 41 35 
-2.529152 1.533224 -11.806981 33 40 34 
-2.241136 1.367470 -10.530551 33 39 34 
-2.167948 1.331484 -10.253430 33 38 32 
-2.098514 1.297343 -9.990522 33 38 32 
-1.935763 1.204676 -9.276914 33 38 32 
-1.794712 1.124364 -8.658453 33 38 32 
-1.782712 1.124364 -8.658453 32 38 31 
-1.732218 1.099921 -8.470225 31 37 31 
-1.720479 1.099921 -8.470225 31 36 30 
-1.708740 1.099921 -8.470225 29 36 29 
-1.858620 1.204676 -9.276914 28 35 29 
-1.845763 1.204676 -9.276914 29 34 28 
-1.710712 1.124364 -8.658453 29 34 28 
-1.592542 1.054091 -8.117299 28 34 29 
-1.549021 1.032579 -7.951640 28 34 29 
-1.477687 0.992086 -7.639811 28 34 29 
-1.411736 0.954649 -7.351516 28 34 29 
-1.326465 0.903507 -6.957685 25 32 28 
-1.271414 0.872351 -6.717765 25 32 28 
-1.262104 0.872351 -6.717765 27 33 29 
-1.252794 0.872351 -6.717765 27 34 30 
-1.243483 0.872351 -6.717765 26 32 28 
-1.213255 0.857566 -6.603905 25 31 27 
-1.164623 0.829449 -6.387383 26 33 30 
-1.137129 0.816071 -6.284361 34 42 39 
-1.128420 0.816071 -6.284361 35 43 40 
-1.119710 0.816071 -6.284361 28 36 33 
-1.093366 0.803117 -6.184609 24 31 28 
-1.084794 0.803117 -6.184609 24 30 27 
-1.076223 0.803117 -6.184609 25 31 27 
-1.067651 0.803117 -6.184609 24 30 26 
-1.059080 0.803117 -6.184609 23 28 23 
-1.050508 0.803117 -6.184609 22 27 23 
-1.025657 0.790568 -6.087975 23 29 24 
-1.017219 0.790568 -6.087975 26 32 25 
-1.008782 0.790568 -6.087975 28 35 27 
-1.000344 0.790568 -6.087975 28 36 27 
-0.991907 0.790568 -6.087975 30 37 27 
-0.983469 0.790568 -6.087975 28 35 25 
-0.975032 0.790568 -6.087975 24 30 21 
-0.966594 0.790568 -6.087975 20 25 18 
-0.958157 0.790568 -6.087975 18 23 15 
-0.949719 0.790568 -6.087975 19 24 16 
-0.941282 0.790568 -6.087975 22 29 19 
-0.947651 0.803117 -6.184609 28 36 25 
-0.939080 0.803117 -6.184609 33 42 28 
-0.930508 0.803117 -6.184609 37 46 31 
-0.936807 0.816071 -6.284361 37 46 31 
-0.928097 0.816071 -6.284361 34 43 31 
-0.919388 0.816071 -6.284361 33 42 29 
-0.910678 0.816071 -6.284361 34 43 30 
-0.901968 0.816071 -6.284361 34 43 31 
-0.893259 0.816071 -6.284361 35 42 30 
-0.884549 0.816071 -6.284361 32 39 29 
-0.875839 0.816071 -6.284361 30 37 27 
-0.881345 0.829449 -6.387383 27 34 25 
-0.872492 0.829449 -6.387383 24 31 23 
-0.878034 0.843273 -6.493839 22 30 23 
-0.899000 0.872351 -6.717765 22 29 22 
-0.889690 0.872351 -6.717765 23 29 22 
-0.880380 0.872351 -6.717765 23 29 22 
-0.856306 0.857566 -6.603905 22 28 21 
-0.833034 0.843273 -6.493839 20 26 21 
-0.824034 0.843273 -6.493839 19 25 20 
-0.091615 0.123406 -0.950318 8 12 11 
-0.089425 0.122213 -0.941136 8 12 11 
-0.087908 0.121919 -0.938868 9 13 11 
-0.086399 0.121626 -0.936611 10 14 12 
-0.084897 0.121334 -0.934365 11 15 14 
-0.082808 0.120181 -0.925488 13 18 17 
-0.081332 0.119897 -0.923295 15 20 19 
-0.079863 0.119613 -0.921112 18 24 22 
-0.078217 0.119050 -0.916777 23 30 30 
-0.076586 0.118493 -0.912483 32 41 40 
-0.074970 0.117940 -0.908229 42 54 54 
-0.073369 0.117393 -0.904015 57 72 73 
-0.072116 0.117393 -0.904015 75 93 93 
-0.070699 0.117121 -0.901922 92 113 116 
-0.069449 0.117121 -0.901922 108 132 135 
-0.068199 0.117121 -0.901922 124 151 158 
-0.066949 0.117121 -0.901922 146 171 180 
-0.065699 0.117121 -0.901922 163 192 205 
-0.064449 0.117121 -0.901922 179 210 223 
-0.063199 0.117121 -0.901922 185 216 230 
-0.061949 0.117121 -0.901922 191 218 233 
-0.060699 0.117121 -0.901922 185 211 226 
-0.059449 0.117121 -0.901922 168 193 207 
-0.058199 0.117121 -0.901922 153 171 185 
-0.056949 0.117121 -0.901922 127 143 156 
-0.055699 0.117121 -0.901922 83 95 105 
-0.054449 0.117121 -0.901922 39 46 52 
-0.053076 0.116851 -0.899839 23 28 31 
-0.051710 0.116582 -0.897766 21 26 29 
-0.050349 0.116314 -0.895702 21 25 27 
-0.049108 0.116314 -0.895702 18 22 23 
-0.047867 0.116314 -0.895702 17 21 22 
-0.046625 0.116314 -0.895702 17 21 21 
-0.334611 0.857566 -6.603905 18 22 22 
-0.051407 0.168655 -1.298768 12 16 13 
-0.049773 0.169219 -1.303112 12 16 14 
-0.048617 0.171513 -1.320781 14 17 14 
-0.043769 0.166985 -1.285909 16 21 17 
-0.041849 0.166435 -1.281679 18 22 18 
-0.040072 0.166435 -1.281679 19 23 19 
-0.038296 0.166435 -1.281679 19 24 19 
-0.036520 0.166435 -1.281679 19 23 19 
-0.034858 0.166985 -1.285909 18 22 17 
-0.033076 0.166985 -1.285909 17 21 16 
-0.031294 0.166985 -1.285909 15 20 16 
-0.029512 0.166985 -1.285909 15 20 16 
-0.027638 0.166435 -1.281679 14 19 14 
-0.025862 0.166435 -1.281679 14 17 13 
-0.024086 0.166435 -1.281679 12 16 12 
-0.022309 0.166435 -1.281679 12 15 12 
-0.020533 0.166435 -1.281679 12 15 12 
-0.018757 0.166435 -1.281679 15 20 16 
-0.016980 0.166435 -1.281679 25 31 25 
-0.015204 0.166435 -1.281679 55 67 58 
-0.013428 0.166435 -1.281679 113 128 115 
-0.011651 0.166435 -1.281679 167 188 175 
-0.009875 0.166435 -1.281679 196 218 213 
-0.008126 0.166985 -1.285909 175 189 194 
-0.006343 0.166985 -1.285909 87 92 101 
-0.004561 0.166985 -1.285909 31 32 37 
-0.002779 0.166985 -1.285909 15 16 17 
-0.000997 0.166985 -1.285909 11 13 13 
0.000785 0.166985 -1.285909 10 12 11 
0.002559 0.166435 -1.281679 13 16 14 
0.004335 0.166435 -1.281679 14 17 15 
0.006112 0.166435 -1.281679 14 17 15 
0.007862 0.165890 -1.277477 14 17 14 
0.009570 0.164809 -1.269154 14 17 14 
0.011329 0.164809 -1.269154 14 17 14 
0.013088 0.164809 -1.269154 14 17 14 
0.014847 0.164809 -1.269154 14 17 14 
0.016552 0.164274 -1.265034 14 17 13 
0.018305 0.164274 -1.265034 14 17 13 
-3.326949 0.641748 -4.995261 193 223 233 
-3.320026 0.641748 -4.995261 195 220 231 
-3.271165 0.633625 -4.932030 193 217 229 
-3.264330 0.633625 -4.932030 195 217 225 
-3.216775 0.625705 -4.870379 202 224 232 
-3.210026 0.625705 -4.870379 234 254 254 
-3.203275 0.625705 -4.870379 222 253 254 
-3.196525 0.625705 -4.870379 191 218 225 
-3.189775 0.625705 -4.870379 101 120 124 
-3.183025 0.625705 -4.870379 50 61 65 
-3.176275 0.625705 -4.870379 69 82 87 
-3.169525 0.625705 -4.870379 139 165 177 
-3.162776 0.625705 -4.870379 165 194 207 
-3.156025 0.625705 -4.870379 169 201 218 
-3.149276 0.625705 -4.870379 185 219 237 
-3.142525 0.625705 -4.870379 187 221 239 
-3.135776 0.625705 -4.870379 187 221 239 
-3.129025 0.625705 -4.870379 185 221 244 
-3.122275 0.625705 -4.870379 187 224 246 
-3.154963 0.633625 -4.932030 187 224 246 
-3.148127 0.633625 -4.932030 189 226 249 
-3.181565 0.641748 -4.995261 189 226 249 
-3.215871 0.650083 -5.060135 185 227 249 
-3.208858 0.650083 -5.060135 189 226 249 
-2.973775 0.625705 -4.870379 198 231 245 
-2.967026 0.625705 -4.870379 198 231 245 
-2.960275 0.625705 -4.870379 196 228 243 
-2.953526 0.625705 -4.870379 146 173 185 
-2.946775 0.625705 -4.870379 193 226 240 
-2.940026 0.625705 -4.870379 163 192 205 
-2.933275 0.625705 -4.870379 71 89 96 
-2.926525 0.625705 -4.870379 48 61 67 
-2.919775 0.625705 -4.870379 89 109 118 
-2.913025 0.625705 -4.870379 118 141 152 
-2.906276 0.625705 -4.870379 96 118 130 
-2.899525 0.625705 -4.870379 152 182 197 
-2.892776 0.625705 -4.870379 185 219 237 
-2.886025 0.625705 -4.870379 189 224 242 
-2.879276 0.625705 -4.870379 191 226 244 
-2.872525 0.625705 -4.870379 191 226 244 
-2.865775 0.625705 -4.870379 187 227 244 
-2.859025 0.625705 -4.870379 191 226 244 
-2.852275 0.625705 -4.870379 185 227 249 
-2.845526 0.625705 -4.870379 185 227 249 
-2.838775 0.625705 -4.870379 187 230 251 
-2.832026 0.625705 -4.870379 187 230 251 
-2.825275 0.625705 -4.870379 187 230 251 
-2.854203 0.633625 -4.932030 187 230 251 
-2.847368 0.633625 -4.932030 189 230 247 
-4.390344 1.430182 -11.132297 36 40 29 
-4.253390 1.390455 -10.823066 35 38 28 
-4.123839 1.352875 -10.530551 34 38 27 
-4.001106 1.317273 -10.253430 32 34 25 
-3.986896 1.317273 -10.253430 28 30 21 
-3.870821 1.283497 -9.990522 32 34 25 
-3.760551 1.251410 -9.740759 44 47 36 
-3.568620 1.191819 -9.276914 65 69 55 
-3.473071 1.164102 -9.061172 57 60 48 
-3.381865 1.137645 -8.855236 40 43 31 
-3.369592 1.137645 -8.855236 39 41 30 
-3.211349 1.088182 -8.470225 38 40 29 
-3.199610 1.088182 -8.470225 30 32 23 
-3.187870 1.088182 -8.470225 26 27 19 
-3.108554 1.065029 -8.290008 27 29 20 
-3.032542 1.042841 -8.117299 28 31 21 
-3.021292 1.042841 -8.117299 29 31 23 
-2.948613 1.021559 -7.951640 29 32 23 
-2.822393 0.981498 -7.639811 31 34 25 
-2.607310 0.910116 -7.084188 33 38 28 
-2.506351 0.878182 -6.835620 37 41 31 
-2.453828 0.863041 -6.717765 38 43 32 
-2.403085 0.848413 -6.603905 40 45 34 
-2.354034 0.834273 -6.493839 44 47 36 
-2.306591 0.820596 -6.387383 44 48 38 
-2.297738 0.820596 -6.387383 52 57 47 
-2.327034 0.834273 -6.493839 109 117 102 
-2.318034 0.834273 -6.493839 155 166 149 
-2.348170 0.848413 -6.603905 172 187 172 
-2.379345 0.863041 -6.717765 193 208 192 
-2.411614 0.878182 -6.835620 166 180 166 
-2.535593 0.926970 -7.215377 93 103 93 
-2.622731 0.962623 -7.492892 55 62 55 
-2.612347 0.962623 -7.492892 41 46 39 
-2.652981 0.981498 -7.639811 34 38 32 
-2.695240 1.001128 -7.792607 28 34 28 
-2.684441 1.001128 -7.792607 29 34 27 
-2.673640 1.001128 -7.792607 28 33 26 
-2.662841 1.001128 -7.792607 28 33 26 
-2.706164 1.021559 -7.951640 30 35 28 
-2.695143 1.021559 -7.951640 32 37 28 
-2.740042 1.042841 -8.117299 34 38 30 
-2.728792 1.042841 -8.117299 35 40 31 
-2.717542 1.042841 -8.117299 36 41 32 
-2.706292 1.042841 -8.117299 36 41 32 
-2.695042 1.042841 -8.117299 40 45 36 
-2.683792 1.042841 -8.117299 55 62 50 
-2.672542 1.042841 -8.117299 80 90 76 
-2.661292 1.042841 -8.117299 70 79 66 
-2.650042 1.042841 -8.117299 44 51 43 
-2.638792 1.042841 -8.117299 34 38 32 
-2.522441 1.001128 -7.792607 32 37 31 
-2.511641 1.001128 -7.792607 34 38 32 
-1.485391 0.610444 -4.751590 139 153 143 
-1.426612 0.588899 -4.583887 66 75 68 
-1.420259 0.588899 -4.583887 43 49 45 
-1.397465 0.582051 -4.530586 45 51 45 
-1.375196 0.575361 -4.478510 45 51 45 
-1.368989 0.575361 -4.478510 45 51 45 
-1.394847 0.588899 -4.583887 47 53 47 
-3.423589 1.472247 -11.459717 45 51 45 
-2.694466 1.164102 -9.061172 44 50 44 
-2.681908 1.164102 -9.061172 43 51 44 
-2.608682 1.137645 -8.855236 42 50 43 
-2.483522 1.088182 -8.470225 41 49 43 
-2.368792 1.042841 -8.117299 39 47 42 
-2.309429 1.021559 -7.951640 36 44 39 
-2.208275 0.981498 -7.639811 37 46 42 
-2.197687 0.981498 -7.639811 33 42 40 
-2.145039 0.962623 -7.492892 65 79 76 
-2.134654 0.962623 -7.492892 120 142 140 
-2.084189 0.944460 -7.351516 149 174 171 
-2.035593 0.926970 -7.215377 104 123 121 
-2.025593 0.926970 -7.215377 88 105 103 
-1.978946 0.910116 -7.084188 85 102 101 
-1.969128 0.910116 -7.084188 86 104 102 
-1.959310 0.910116 -7.084188 64 78 74 
-1.949491 0.910116 -7.084188 39 48 45 
-1.905036 0.893864 -6.957685 35 42 38 
-1.830035 0.863041 -6.717765 33 40 34 
-1.789865 0.848413 -6.603905 28 34 28 
-1.751034 0.834273 -6.493839 26 31 24 
-1.713476 0.820596 -6.387383 23 29 23 
-1.704623 0.820596 -6.387383 22 28 21 
-1.695771 0.820596 -6.387383 21 26 19 
-1.686918 0.820596 -6.387383 20 25 18 
-1.734950 0.848413 -6.603905 20 25 18 
-1.725797 0.848413 -6.603905 22 26 19 
-1.716645 0.848413 -6.603905 23 27 20 
-1.707492 0.848413 -6.603905 24 28 21 
-1.727621 0.863041 -6.717765 28 31 23 
-1.718311 0.863041 -6.717765 31 35 26 
-1.680034 0.848413 -6.603905 34 38 29 
-1.699690 0.863041 -6.717765 38 43 34 
-0.662097 0.347614 -2.705766 40 46 38 
-0.658347 0.347614 -2.705766 39 44 37 
-0.650083 0.345216 -2.687106 39 44 37 
-0.641932 0.342852 -2.668701 36 40 34 
-0.638233 0.342852 -2.668701 37 43 37 
-0.630218 0.340520 -2.650547 38 44 40 
-0.626544 0.340520 -2.650547 75 81 75 
-0.618662 0.338219 -2.632638 185 199 191 
-0.615014 0.338219 -2.632638 183 196 189 
-0.611365 0.338219 -2.632638 69 78 76 
-0.607716 0.338219 -2.632638 31 35 33 
-0.604068 0.338219 -2.632638 24 28 26 
-0.604504 0.340520 -2.650547 31 38 35 
-0.600830 0.340520 -2.650547 31 37 33 
-0.597157 0.340520 -2.650547 31 37 33 
-0.593483 0.340520 -2.650547 31 37 33 
-0.589810 0.340520 -2.650547 32 37 34 
-0.598347 0.347614 -2.705766 33 38 34 
-0.602972 0.352510 -2.743876 33 38 34 
-0.599169 0.352510 -2.743876 32 37 34 
-0.820796 0.485984 -3.782819 33 37 32 
-1.354871 0.807361 -6.284361 30 36 31 
-2.255730 1.352875 -10.530551 29 36 30 
-1.382034 0.834273 -6.493839 29 36 30 
-1.373034 0.834273 -6.493839 29 35 30 
-1.387153 0.848413 -6.603905 29 35 30 
-1.378000 0.848413 -6.603905 29 36 30 
-1.368848 0.848413 -6.603905 29 36 30 
-1.359695 0.848413 -6.603905 29 36 30 
-1.373828 0.863041 -6.717765 29 35 30 
-1.364518 0.863041 -6.717765 28 34 29 
-1.355207 0.863041 -6.717765 28 34 29 
-1.345897 0.863041 -6.717765 27 33 28 
-1.409491 0.910116 -7.084188 27 33 28 
-1.399673 0.910116 -7.084188 27 33 29 
-1.317966 0.863041 -6.717765 27 33 29 
-1.286475 0.848413 -6.603905 27 33 29 
-1.277323 0.848413 -6.603905 27 33 29 
-1.247034 0.834273 -6.493839 27 33 29 
-1.217738 0.820596 -6.387383 25 32 28 
-1.208886 0.820596 -6.387383 24 30 27 
-1.200033 0.820596 -6.387383 25 31 27 
-1.191181 0.820596 -6.387383 26 32 28 
-1.182328 0.820596 -6.387383 25 32 29 
-1.154549 0.807361 -6.284361 30 37 34 
-1.145839 0.807361 -6.284361 41 49 45 
-1.101594 0.782131 -6.087975 49 57 53 
-1.110508 0.794546 -6.184609 47 55 51 
-1.101937 0.794546 -6.184609 41 49 45 
-1.093366 0.794546 -6.184609 41 48 45 
-1.084794 0.794546 -6.184609 41 48 45 
-1.076223 0.794546 -6.184609 40 47 44 
-1.067651 0.794546 -6.184609 38 45 42 
-1.042532 0.782131 -6.087975 35 43 38 
-1.034094 0.782131 -6.087975 34 41 35 
-1.025657 0.782131 -6.087975 29 35 30 
-1.017219 0.782131 -6.087975 27 32 26 
-1.008782 0.782131 -6.087975 29 35 28 
-1.000344 0.782131 -6.087975 29 35 28 
-0.991907 0.782131 -6.087975 29 35 27 
-0.983469 0.782131 -6.087975 27 35 26 
-0.975032 0.782131 -6.087975 26 32 23 
-0.966594 0.782131 -6.087975 22 28 20 
-0.958157 0.782131 -6.087975 20 25 18 
-0.949719 0.782131 -6.087975 21 27 19 
-0.956223 0.794546 -6.184609 26 32 22 
-0.947651 0.794546 -6.184609 30 37 26 
-0.939080 0.794546 -6.184609 34 41 29 
-0.945517 0.807361 -6.284361 36 46 33 
-0.936807 0.807361 -6.284361 39 47 34 
-0.928097 0.807361 -6.284361 40 48 35 
-0.919388 0.807361 -6.284361 39 47 34 
-0.925607 0.820596 -6.387383 35 43 31 
-0.916755 0.820596 -6.387383 33 41 30 
-0.907902 0.820596 -6.387383 32 39 29 
-0.899050 0.820596 -6.387383 28 35 25 
-0.905034 0.834273 -6.493839 25 32 24 
-0.911221 0.848413 -6.603905 24 31 23 
-0.917621 0.863041 -6.717765 24 30 23 
-0.957855 0.910116 -7.084188 23 29 23 
-0.948037 0.910116 -7.084188 23 29 22 
-0.938219 0.910116 -7.084188 22 28 22 
-0.928401 0.910116 -7.084188 21 28 22 
-0.902179 0.893864 -6.957685 20 26 21 
-0.861759 0.863041 -6.717765 19 25 20 
-0.852449 0.863041 -6.717765 17 23 18 
-0.091615 0.122089 -0.950318 8 11 10 
-0.089859 0.121496 -0.945705 8 11 10 
-0.088121 0.120909 -0.941136 8 12 11 
-0.086607 0.120618 -0.938868 9 13 12 
-0.085101 0.120328 -0.936611 10 14 13 
-0.083602 0.120039 -0.934365 12 16 15 
-0.081525 0.118899 -0.925488 14 19 18 
-0.080052 0.118617 -0.923295 17 24 23 
-0.078401 0.118058 -0.918940 23 31 30 
-0.076586 0.117228 -0.912483 32 41 40 
-0.074970 0.116682 -0.908229 42 54 54 
-0.073369 0.116140 -0.904015 57 72 73 
-0.072116 0.116140 -0.904015 74 93 96 
-0.070699 0.115871 -0.901922 92 113 116 
-0.069449 0.115871 -0.901922 108 132 135 
-0.068199 0.115871 -0.901922 124 151 158 
-0.066949 0.115871 -0.901922 146 171 180 
-0.065699 0.115871 -0.901922 165 194 207 
-0.064449 0.115871 -0.901922 179 210 223 
-0.063199 0.115871 -0.901922 189 215 230 
-0.061949 0.115871 -0.901922 189 215 230 
-0.060699 0.115871 -0.901922 183 208 223 
-0.059449 0.115871 -0.901922 167 191 205 
-0.058199 0.115871 -0.901922 153 171 185 
-0.056949 0.115871 -0.901922 127 143 156 
-0.055699 0.115871 -0.901922 83 95 105 
-0.054323 0.115604 -0.899839 39 46 52 
-0.052954 0.115337 -0.897766 23 28 31 
-0.051591 0.115072 -0.895702 20 25 28 
-0.050349 0.115072 -0.895702 20 24 26 
-0.049108 0.115072 -0.895702 18 22 24 
-0.047867 0.115072 -0.895702 17 22 23 
-0.046733 0.115337 -0.897766 18 22 23 
-0.334611 0.848413 -6.603905 18 22 22 
-0.325458 0.848413 -6.603905 17 21 21 
-0.316306 0.848413 -6.603905 16 19 19 
-0.302034 0.834273 -6.493839 14 18 17 
-0.283581 0.807361 -6.284361 13 17 16 
-0.266282 0.782131 -6.087975 12 16 14 
-0.257844 0.782131 -6.087975 11 14 13 
-0.047807 0.166855 -1.298768 12 16 13 
-0.046007 0.166855 -1.298768 13 17 15 
-0.043769 0.165203 -1.285909 15 19 15 
-0.041849 0.164659 -1.281679 16 20 17 
-0.040072 0.164659 -1.281679 18 23 19 
-0.038296 0.164659 -1.281679 20 24 20 
-0.036520 0.164659 -1.281679 20 25 20 
-0.027638 0.164659 -1.281679 14 18 14 
-0.025862 0.164659 -1.281679 13 17 13 
-0.024086 0.164659 -1.281679 12 16 12 
-0.022309 0.164659 -1.281679 12 15 11 
-0.020533 0.164659 -1.281679 12 15 12 
-0.018757 0.164659 -1.281679 16 21 17 
-0.016980 0.164659 -1.281679 29 36 29 
-0.015204 0.164659 -1.281679 70 84 74 
-0.013428 0.164659 -1.281679 148 165 151 
-0.011651 0.164659 -1.281679 201 226 216 
-0.009908 0.165203 -1.285909 224 247 241 
-0.008126 0.165203 -1.285909 201 218 227 
-0.006343 0.165203 -1.285909 114 116 127 
-0.004561 0.165203 -1.285909 42 43 48 
-0.002779 0.165203 -1.285909 19 21 23 
-0.000997 0.165203 -1.285909 15 18 18 
0.000785 0.165203 -1.285909 13 16 15 
0.002568 0.165203 -1.285909 13 16 14 
0.004335 0.164659 -1.281679 14 17 15 
0.006112 0.164659 -1.281679 14 17 15 
0.007862 0.164119 -1.277477 14 17 15 
0.009601 0.163583 -1.273302 14 17 14 
0.011366 0.163583 -1.273302 14 17 14 
0.016606 0.163050 -1.269154 14 17 14 
0.018305 0.162521 -1.265034 14 17 14 
-3.326949 0.634825 -4.995261 197 222 234 
-3.320026 0.634825 -4.995261 197 220 227 
-3.271165 0.626790 -4.932030 193 215 222 
-3.264330 0.626790 -4.932030 193 215 222 
-3.216775 0.618955 -4.870379 202 224 232 
-3.210026 0.618955 -4.870379 229 254 254 
-3.203275 0.618955 -4.870379 224 246 250 
-3.196525 0.618955 -4.870379 147 169 171 
-3.189775 0.618955 -4.870379 56 66 69 
-3.183025 0.618955 -4.870379 34 41 44 
-3.176275 0.618955 -4.870379 62 73 79 
-3.169525 0.618955 -4.870379 142 162 172 
-3.162776 0.618955 -4.870379 165 194 207 
-3.156025 0.618955 -4.870379 165 194 207 
-3.149276 0.618955 -4.870379 181 212 225 
-3.142525 0.618955 -4.870379 183 217 234 
-3.135776 0.618955 -4.870379 181 214 232 
-3.129025 0.618955 -4.870379 181 217 239 
-3.122275 0.618955 -4.870379 181 217 239 
-3.154963 0.626790 -4.932030 183 219 241 
-3.188488 0.634825 -4.995261 185 221 244 
-3.222884 0.643070 -5.060135 187 224 246 
-2.967026 0.618955 -4.870379 200 233 248 
-2.960275 0.618955 -4.870379 193 226 240 
-2.953526 0.618955 -4.870379 171 201 214 
-2.946775 0.618955 -4.870379 198 231 245 
-2.940026 0.618955 -4.870379 142 169 181 
-2.933275 0.618955 -4.870379 48 62 68 
-2.926525 0.618955 -4.870379 40 52 57 
-2.919775 0.618955 -4.870379 78 96 105 
-2.913025 0.618955 -4.870379 127 152 163 
-2.906276 0.618955 -4.870379 159 190 206 
-2.899525 0.618955 -4.870379 177 210 227 
-2.892776 0.618955 -4.870379 187 221 239 
-2.886025 0.618955 -4.870379 189 224 242 
-2.879276 0.618955 -4.870379 191 226 244 
-2.872525 0.618955 -4.870379 191 226 244 
-2.865775 0.618955 -4.870379 191 226 244 
-2.859025 0.618955 -4.870379 191 226 244 
-2.852275 0.618955 -4.870379 191 226 244 
-2.845526 0.618955 -4.870379 185 227 249 
-2.838775 0.618955 -4.870379 185 227 249 
-2.867874 0.626790 -4.932030 185 227 249 
-2.861038 0.626790 -4.932030 185 227 249 
-2.854203 0.626790 -4.932030 187 227 244 
-4.390344 1.414754 -11.132297 37 39 28 
-4.253390 1.375455 -10.823066 35 37 27 
-4.123839 1.338281 -10.530551 35 37 27 
-4.001106 1.303063 -10.253430 36 38 28 
-3.986896 1.303063 -10.253430 32 34 24 
-3.870821 1.269651 -9.990522 31 33 25 
-3.668830 1.207717 -9.503180 60 63 50 
-3.568620 1.178962 -9.276914 81 85 69 
-3.473071 1.151544 -9.061172 71 75 60 
-3.381865 1.125372 -8.855236 44 47 37 
-3.294712 1.100364 -8.658453 26 29 21 
-3.211349 1.076443 -8.470225 30 32 23 
-3.199610 1.076443 -8.470225 34 36 26 
-3.120043 1.053540 -8.290008 32 34 24 
-3.108554 1.053540 -8.290008 31 33 24 
-3.032542 1.031591 -8.117299 31 34 25 
-3.021292 1.031591 -8.117299 31 34 25 
-2.948613 1.010538 -7.951640 31 34 25 
-2.822393 0.970909 -7.639811 33 35 26 
-2.655593 0.916970 -7.215377 36 39 29 
-2.597492 0.900298 -7.084188 37 41 31 
-2.541465 0.884221 -6.957685 38 43 32 
-2.487404 0.868708 -6.835620 40 45 34 
-2.435208 0.853731 -6.717765 43 48 37 
-2.425897 0.853731 -6.717765 43 49 39 
-2.416587 0.853731 -6.717765 46 50 41 
-2.407276 0.853731 -6.717765 84 90 77 
-2.397966 0.853731 -6.717765 164 176 159 
-2.430562 0.868708 -6.835620 195 211 195 
-2.509128 0.900298 -7.084188 193 208 192 
-2.545593 0.916970 -7.215377 185 199 184 
-2.633116 0.952238 -7.492892 155 168 154 
-2.674157 0.970909 -7.639811 104 114 104 
-2.716841 0.990328 -7.792607 55 61 52 
-2.706041 0.990328 -7.792607 35 40 33 
-2.750246 1.010538 -7.951640 26 32 26 
-2.739225 1.010538 -7.951640 24 28 22 
-2.728205 1.010538 -7.951640 20 24 18 
-2.717184 1.010538 -7.951640 20 24 18 
-2.706164 1.010538 -7.951640 21 25 20 
-2.695143 1.010538 -7.951640 27 31 23 
-2.740042 1.031591 -8.117299 32 37 28 
-2.728792 1.031591 -8.117299 36 41 32 
-2.717542 1.031591 -8.117299 36 41 32 
-2.706292 1.031591 -8.117299 34 41 32 
-2.695042 1.031591 -8.117299 42 48 38 
-2.683792 1.031591 -8.117299 53 60 48 
-2.672542 1.031591 -8.117299 62 70 59 
-2.661292 1.031591 -8.117299 54 61 51 
-2.650042 1.031591 -8.117299 39 45 36 
-2.638792 1.031591 -8.117299 32 38 31 
-2.472981 0.970909 -7.639811 33 38 32 
-2.462393 0.970909 -7.639811 34 40 33 
-2.451804 0.970909 -7.639811 35 41 34 
-1.638427 0.660218 -5.195072 56 64 58 
-1.568488 0.634825 -4.995261 96 107 99 
-1.485391 0.603858 -4.751590 139 153 143 
-1.426612 0.582546 -4.583887 65 73 67 
-1.403744 0.575772 -4.530586 42 48 42 
-1.350360 0.556364 -4.377869 43 49 43 
-1.344292 0.556364 -4.377869 44 50 44 
-1.368989 0.569154 -4.478510 44 50 44 
-1.394847 0.582546 -4.583887 46 52 46 
-1.475275 0.618955 -4.870379 47 53 47 
-2.732140 1.151544 -9.061172 47 52 44 
-2.719582 1.151544 -9.061172 44 50 44 
-2.586712 1.100364 -8.658453 44 49 43 
-2.465150 1.053540 -8.290008 41 49 43 
-2.453660 1.053540 -8.290008 40 48 42 
-2.442171 1.053540 -8.290008 40 48 42 
-2.380042 1.031591 -8.117299 40 47 41 
-2.320450 1.010538 -7.951640 40 47 41 
-2.218863 0.970909 -7.639811 37 45 40 
-2.165808 0.952238 -7.492892 36 45 41 
-2.114755 0.934271 -7.351516 33 42 40 
-2.065593 0.916970 -7.215377 64 78 74 
-2.055593 0.916970 -7.215377 113 133 131 
-2.008400 0.900298 -7.084188 122 145 146 
-1.928457 0.868708 -6.835620 95 116 116 
-1.885897 0.853731 -6.717765 84 102 103 
-1.876587 0.853731 -6.717765 86 105 106 
-1.867276 0.853731 -6.717765 93 111 109 
-1.857966 0.853731 -6.717765 69 82 79 
-1.848656 0.853731 -6.717765 39 48 45 
-1.839345 0.853731 -6.717765 34 42 37 
-1.799017 0.839261 -6.603905 34 41 35 
-1.760034 0.825273 -6.493839 29 35 29 
-1.722328 0.811744 -6.387383 27 33 27 
-1.713476 0.811744 -6.387383 25 31 24 
-1.677130 0.798651 -6.284361 24 30 23 
-1.668420 0.798651 -6.284361 23 29 22 
-1.659710 0.798651 -6.284361 22 27 20 
-1.678066 0.811744 -6.387383 23 27 20 
-1.669214 0.811744 -6.387383 25 29 22 
-1.660361 0.811744 -6.387383 26 30 22 
-1.651509 0.811744 -6.387383 27 31 23 
-1.642656 0.811744 -6.387383 28 33 25 
-1.633804 0.811744 -6.387383 32 36 28 
-1.624951 0.811744 -6.387383 36 41 32 
-1.643034 0.825273 -6.493839 40 45 36 
-0.662097 0.343864 -2.705766 36 42 35 
-0.653807 0.341492 -2.687106 37 41 35 
-0.645630 0.339153 -2.668701 37 41 35 
-0.641932 0.339153 -2.668701 35 40 34 
-0.638233 0.339153 -2.668701 35 40 34 
-0.630218 0.336846 -2.650547 32 37 34 
-0.626544 0.336846 -2.650547 82 90 86 
-0.618662 0.334570 -2.632638 205 219 211 
-0.615014 0.334570 -2.632638 194 210 206 
-0.607262 0.332325 -2.614969 79 87 85 
-0.603638 0.332325 -2.614969 36 42 40 
-0.600014 0.332325 -2.614969 25 29 28 
-0.600419 0.334570 -2.632638 30 35 34 
-0.600830 0.336846 -2.650547 30 34 31 
-0.597157 0.336846 -2.650547 30 34 31 
-0.593483 0.336846 -2.650547 28 34 31 
-0.597945 0.341492 -2.687106 28 34 31 
-0.805253 0.462770 -3.641405 29 35 32 
-0.831282 0.480742 -3.782819 29 35 32 
-0.826039 0.480742 -3.782819 28 34 31 
-0.853960 0.500165 -3.935660 28 34 31 
-0.893639 0.526770 -4.145004 28 33 31 
-1.324794 0.785974 -6.184609 27 32 30 
-1.316223 0.785974 -6.184609 27 32 30 
-1.328742 0.798651 -6.284361 27 32 30 
-1.364034 0.825273 -6.493839 27 32 30 
-1.378000 0.839261 -6.603905 25 32 29 
-1.323968 0.811744 -6.387383 25 32 29 
-1.315115 0.811744 -6.387383 26 33 30 
-1.306263 0.811744 -6.387383 26 33 30 
-1.297410 0.811744 -6.387383 25 32 29 
-1.288558 0.811744 -6.387383 25 32 29 
-1.279705 0.811744 -6.387383 25 32 29 
-1.270853 0.811744 -6.387383 25 32 29 
-1.283034 0.825273 -6.493839 25 32 29 
-1.274034 0.825273 -6.493839 24 31 28 
-1.244296 0.811744 -6.387383 25 32 29 
-1.235443 0.811744 -6.387383 25 32 29 
-1.206807 0.798651 -6.284361 26 33 30 
-1.198097 0.798651 -6.284361 26 31 29 
-1.170508 0.785974 -6.184609 25 30 28 
-1.161937 0.785974 -6.184609 24 29 27 
-1.153365 0.785974 -6.184609 23 28 26 
-1.163259 0.798651 -6.284361 23 28 26 
